-0.015010 -0.035883 0.914133 
-0.015010 -0.033871 0.914305 
-0.013276 -0.033696 0.913612 
-0.013276 -0.035935 0.913420 
-0.017026 -0.036012 0.914122 
-0.015019 -0.035806 0.914139 
-0.014728 -0.037452 0.913290 
-0.016963 -0.037682 0.913270 
-0.016435 -0.033555 0.914332 
-0.017345 -0.035350 0.914179 
-0.018947 -0.034614 0.913533 
-0.017932 -0.032614 0.913705 
-0.016014 -0.034625 0.915461 
-0.016014 -0.035335 0.915400 
-0.015770 -0.034981 0.915431 
-0.016479 -0.035055 0.915424 
-0.016157 -0.035324 0.915401 
-0.015836 -0.034689 0.915456 
-0.011490 -0.034846 0.913875 
-0.015662 -0.039368 0.913487 
-0.020033 -0.032842 0.914046 
0.009687 0.226615 0.002708 
0.005394 0.255062 0.008684 
0.005401 0.253765 0.018729 
0.009696 0.224736 0.017287 
-0.003028 0.223647 0.024564 
-0.003370 0.253016 0.023746 
-0.012144 0.253561 0.018714 
-0.015762 0.224439 0.017264 
-0.015770 0.226319 0.002684 
-0.012149 0.254859 0.008668 
-0.003380 0.255607 0.003652 
-0.003046 0.227407 -0.004592 
-0.011258 0.168511 -0.002542 
-0.015431 0.197534 -0.001028 
-0.002707 0.198622 -0.008305 
-0.002368 0.169269 -0.007627 
-0.002355 0.166641 0.012747 
-0.002692 0.194862 0.020851 
-0.015423 0.195654 0.013551 
-0.011254 0.167197 0.007646 
0.006531 0.168716 -0.002524 
0.010026 0.197829 -0.001005 
0.010035 0.195949 0.013574 
0.006535 0.167402 0.007662 
-0.008416 0.263135 0.011964 
-0.003478 0.263556 0.009139 
-0.003472 0.262097 0.020455 
-0.008412 0.262403 0.017620 
0.001464 0.263249 0.011974 
0.001466 0.262518 0.017630 
-0.007589 0.157949 -0.001840 
-0.002244 0.158407 -0.004897 
-0.004795 0.186132 -0.025522 
-0.031562 0.183843 -0.010213 
-0.034265 0.199095 -0.046961 
-0.044717 0.198201 -0.040985 
0.003109 0.157284 0.004295 
-0.002236 0.156827 0.007353 
0.000760 0.177573 0.030153 
0.021519 0.179350 0.018282 
0.020787 0.181521 0.050412 
0.028858 0.182211 0.045797 
-0.007586 0.157160 0.004285 
-0.027191 0.181461 0.022026 
-0.002916 0.179949 0.035945 
-0.035249 0.182732 0.047181 
-0.025755 0.182141 0.052624 
0.003107 0.158075 -0.001829 
0.023324 0.175998 -0.019373 
-0.004249 0.177715 -0.035182 
0.029462 0.177466 -0.050135 
0.025175 0.177734 -0.052592 
0.025347 0.183092 0.011187 
0.025329 0.186935 -0.018607 
0.055777 0.200743 -0.000154 
0.055769 0.202465 -0.013498 
-0.023933 0.174290 -0.009118 
-0.023917 0.170831 0.017690 
-0.042125 0.176435 0.002992 
-0.042121 0.175434 0.010755 
-0.007024 -0.055336 0.003234 
-0.002783 -0.054860 0.010691 
0.012107 0.026339 0.012709 
-0.009361 0.023916 -0.025060 
0.020454 0.092477 -0.042858 
-0.009581 0.029731 0.005931 
-0.000993 0.029554 0.006007 
0.010650 0.078067 0.023341 
-0.026685 0.078832 0.023003 
-0.008749 0.143498 0.079897 
0.000799 0.114269 -0.002192 
-0.003439 0.113792 -0.009648 
0.010287 0.139183 -0.039037 
0.033505 0.141802 0.001808 
0.062556 0.154849 -0.035234 
-0.007061 -0.163781 -0.001375 
-0.007024 -0.055336 0.003234 
-0.002783 -0.054860 0.010691 
-0.002763 -0.164417 0.006039 
-0.011373 -0.054683 0.010613 
-0.011356 -0.164417 0.006039 
-0.005231 0.029077 -0.001450 
-0.007791 0.114446 -0.002269 
-0.006313 -0.340873 -0.021310 
-0.002018 -0.341508 -0.013897 
-0.010608 -0.341508 -0.013897 
-0.006652 0.159947 0.004262 
-0.002705 0.161903 -0.003112 
0.001929 0.159896 0.003837 
-0.023967 -0.203531 -0.035523 
-0.023967 -0.208887 0.026962 
-0.028282 -0.077770 0.030686 
-0.028282 -0.073693 -0.016878 
0.025329 -0.206684 0.001262 
-0.027272 -0.203767 -0.032765 
-0.010037 -0.072129 -0.035114 
0.030003 -0.074350 -0.009213 
-0.027554 -0.209590 0.035159 
0.023335 -0.206459 -0.001359 
0.027852 -0.070524 0.015081 
-0.010884 -0.072907 0.042878 
-0.007261 -0.351228 -0.005515 
-0.007261 -0.349322 -0.027748 
-0.063303 0.060183 0.018556 
-0.013869 -0.349685 -0.023514 
0.005071 -0.350735 -0.011262 
0.029051 0.066946 -0.049323 
0.001410 -0.349933 -0.020611 
-0.012985 -0.350819 -0.010280 
0.026970 0.056197 0.065054 
